0.197788 0.622905 0.905533 0.249955 0.706932 -0.661642 4.0
0.150763 0.614313 0.431455 -0.12613 0.871069 -0.474689 4.0
0.340144 0.787585 0.694825 0.654587 0.633997 0.411782 4.0
0.897502 0.331521 0.66047 -0.10486 0.969005 -0.223681 4.0
0.318168 0.849225 0.534523 0.61755 0.765508 0.180636 4.0
0.696512 0.504521 0.311152 -0.064103 -0.024197 0.99765 4.0
0.222232 0.687009 0.679046 -0.29764 0.943417 0.146202 4.0
0.491727 0.683302 0.49056 0.092285 0.928372 0.360011 4.0
0.071151 0.859806 0.632979 0.075274 0.016216 0.997031 2.0
0.601818 0.469325 0.278905 0.022417 -0.255398 0.966576 4.0
0.839256 0.335669 0.676877 0.937519 -0.321186 -0.133783 4.0
0.383854 0.411918 0.273541 -0.010351 -0.122385 0.992429 4.0
0.619247 0.275729 0.498173 0.989961 -0.118778 -0.076606 4.0
0.47216 0.757812 0.508054 -0.530827 0.525447 0.664927 4.0
0.62034 0.332431 0.547815 0.726555 0.604019 0.327535 2.0
0.669236 0.305752 0.304422 -0.083357 0.808285 0.582861 1.0
0.566034 0.488825 0.543941 0.110274 0.023079 0.993633 2.0
0.779957 0.411449 0.272933 0.014747 -0.082315 0.996497 4.0
0.245874 0.867622 0.792349 0.994971 -0.099805 -0.00847 4.0
0.535105 0.723345 0.587959 0.957883 -0.097079 -0.270251 4.0
0.857153 0.326128 0.642806 0.574521 0.554603 -0.601948 4.0
0.366597 0.699191 0.613071 -0.204445 -0.159932 0.965725 2.0
0.390727 0.526264 0.452983 0.495772 0.868196 0.021134 4.0
0.962585 0.160708 0.56659 -0.029037 -0.375768 0.926259 4.0
0.8636 0.330292 0.545307 -0.023054 0.703308 0.710512 4.0
0.237992 0.632065 0.456289 0.842966 0.536813 0.035219 4.0
0.570114 0.41166 0.272354 -0.032906 -0.139728 0.989643 4.0
0.597564 0.696276 0.642297 0.44002 0.897812 -0.017775 4.0
0.409347 0.532824 0.64139 0.677782 0.735024 0.01874 3.0
0.375449 0.821054 0.787717 0.689671 0.059154 -0.721703 4.0
0.538449 0.672235 0.417166 0.013358 0.808361 0.588536 4.0
0.164702 0.676124 0.57893 0.268671 0.666928 -0.694998 4.0
0.626431 0.48039 0.584853 0.838239 0.530473 0.126309 2.0
0.303442 0.817495 0.887106 0.827901 -0.559459 0.039822 4.0
0.447276 0.457424 0.29807 0.535083 0.842906 0.056523 4.0
0.617655 0.488727 0.285551 0.046193 -0.17252 0.983922 4.0
0.272978 0.581896 0.366567 0.984447 -0.066816 0.162482 4.0
0.550361 0.29427 0.492594 0.096497 0.957433 0.272048 4.0
0.238444 0.793168 0.662573 -0.330247 0.302884 0.893979 4.0
0.866066 0.329717 0.640587 0.41665 0.90903 -0.008218 4.0
0.269108 0.585541 0.698679 0.435044 0.824319 0.362264 4.0
0.510497 0.425978 0.273725 -0.006209 -0.162252 0.98673 4.0
0.392097 0.686731 0.618182 -0.213328 -0.302152 0.929083 2.0
0.520819 0.410756 0.348166 -0.378366 0.925278 0.026456 4.0
0.296954 0.686787 0.470986 0.166663 -0.42324 0.890557 0.0
0.383451 0.483878 0.276467 -0.000183 -0.124947 0.992163 4.0
0.273232 0.799156 0.71754 0.566191 0.806163 -0.17184 4.0
0.400097 0.643246 0.555368 0.173494 -0.04148 0.983961 2.0
0.712681 0.257185 0.587695 0.357212 0.373381 0.856146 2.0
